# .PCD v0.7 - Point Cloud Data file format 
VERSION 0.7
FIELDS x y z intensity
SIZE 4 4 4 4
TYPE F F F F
COUNT 1 1 1 1
WIDTH 1420
HEIGHT 1
VIEWPOINT 0 0 0 1 0 0 0
POINTS 1420
DATA ascii
2.108191 -7.239901 1.5454168 24
1.3363578 -9.61574 2.947918 6
1.8630004 -12.316783 3.0119224 6
1.0452585 -7.241108 1.4186078 34
1.752044 -7.232609 1.5029336 52
1.2528515 -12.584936 2.7992468 19
2.101815 -7.1952105 2.1333282 27
1.3973446 -7.2570963 1.2920753 30
2.105376 -7.2556596 1.3764111 29
1.3966544 -7.2394156 1.9664307 27
1.7501829 -7.3021946 2.056003 117
1.0397074 -7.261266 1.2490094 32
1.7481186 -7.2432084 1.334629 37
1.040297 -7.2395005 1.9253285 18
2.0993104 -7.217754 1.881781 52
1.3930371 -7.2618814 1.0382085 40
1.7468699 -7.281799 1.1644481 65
1.3921062 -7.252587 1.7982378 72
1.7446474 -7.2359843 1.8396409 28
1.3904405 -7.282035 0.5671532 12
1.7445444 -7.2668357 0.8681814 38
1.0357624 -7.2435064 1.7562617 23
2.0965328 -7.2373176 1.713978 63
1.4925858 -3.6339126 0.49960172 7
1.6437391 -2.3735437 1.0443662 26
1.3878806 -7.2538505 1.6293997 67
1.026691 -7.2111053 1.5868976 38
1.7308618 -7.2266064 1.6709954 57
1.3873576 -6.91176 3.393066 28
1.7307216 -7.2971807 2.9175138 112
1.3771309 -7.2269735 1.4608659 41
2.0823715 -7.229686 1.5452799 30
1.8202765 -12.317658 3.0118718 6
1.0196114 -7.247125 1.4185157 37
1.7268344 -7.233109 1.5029255 52
1.2088544 -12.587639 2.7996554 19
2.0777626 -7.208871 2.1343749 18
1.3725202 -7.248375 1.2922602 33
2.0797734 -7.2494226 1.376495 31
1.3719 -7.2307086 1.9658716 36
1.7249604 -7.302701 2.0559735 134
1.0149431 -7.255302 1.2491163 40
1.7230943 -7.2437057 1.3345997 36
1.0152965 -7.2375283 1.9253072 20
2.0743787 -7.219479 1.881748 36
1.3679465 -7.261136 1.038183 34
1.7212261 -7.254321 1.1656429 69
1.3671826 -7.2478476 1.7980385 73
1.7197903 -7.2444596 1.8400062 24
1.3651481 -7.2852464 0.5666282 17
1.7195677 -7.275288 0.86747724 41
1.0101008 -7.2494855 1.7565417 26
2.071531 -7.239032 1.7139449 68
1.480034 -3.637394 0.4985426 7
1.6358485 -2.3815691 1.0428988 21
1.3628244 -7.25309 1.6293744 61
1.0036428 -7.2172627 1.5869919 40
1.7084765 -7.2310038 1.6710714 17
1.3660439 -6.9072347 3.3919756 27
1.707877 -7.2858114 2.9151673 112
1.3542736 -7.2382526 1.4608048 34
2.0601575 -7.235181 1.5452827 30
1.781929 -12.326257 3.0128093 6
0.996753 -7.2492733 1.418459 34
1.7043442 -7.2334957 1.5028973 53
1.1692628 -12.594325 2.8004446 18
2.0543656 -7.1984234 2.1332848 30
1.349479 -7.2556276 1.2920461 28
2.0572162 -7.250918 1.3764635 33
1.3495479 -7.22599 1.9655802 38
1.702241 -7.303082 2.0559454 150
1.7005463 -7.2440786 1.3345718 35
2.0519073 -7.220961 1.8817166 32
1.3450624 -7.2683697 1.0376693 23
1.6986359 -7.2546864 1.165615 66
1.3447566 -7.243107 1.7978401 73
1.6971198 -7.236835 1.8395839 30
1.3424494 -7.2844877 0.5666038 17
1.6968433 -7.271663 0.8677867 43
0.98651946 -7.2595625 1.7569731 26
2.0489757 -7.2405043 1.7139136 63
1.469095 -3.6292992 0.500625 6
1.6286541 -2.3856227 1.0421611 17
1.3402271 -7.252328 1.6293501 60
0.978369 -7.2191434 1.587029 40
1.6833966 -7.223366 1.6708344 22
1.3419282 -6.914111 3.3940854 27
1.6826693 -7.282247 2.9143662 112
1.3297079 -7.2253814 1.4608166 47
2.0351558 -7.2367663 1.5452504 30
1.7392106 -12.330814 3.0132527 7
0.9710192 -7.255114 1.4183677 31
1.679396 -7.2378383 1.5028801 30
1.1255639 -12.592772 2.800401 18
2.0292592 -7.196014 2.132893 30
1.3248576 -7.2427435 1.2923371 39
2.0314558 -7.2444973 1.3765693 31
1.3240645 -7.233061 1.9661102 22
1.6769084 -7.287473 2.0546563 166
0.9670337 -7.2552867 1.2489395 68
1.6755875 -7.244411 1.3345364 38
0.967516 -7.2375145 1.9255027 38
2.0270333 -7.222523 1.8816774 21
1.3201698 -7.2634687 1.0378824 19
1.6735959 -7.2510157 1.1657544 69
1.3195027 -7.2501855 1.7981567 69
1.6721087 -7.2291675 1.839154 35
1.6717827 -7.2719793 0.8677512 43
0.96186495 -7.2534204 1.756795 23
2.0245032 -7.250038 1.7141294 21
1.4564563 -3.6365561 0.49851602 7
1.6207026 -2.3896646 1.041421 17
1.3149344 -7.259396 1.6294805 54
0.9515377 -7.22481 1.5871171 39
1.6572922 -7.2276487 1.6709032 23
1.3169471 -6.913154 3.3940554 23
1.6563622 -7.2864604 2.915103 112
1.3032378 -7.2323613 1.4607611 51
2.0082817 -7.226361 1.545107 30
1.2446082 -8.639366 2.799458 32
1.6943902 -12.335248 3.0136845 7
0.9454839 -7.244818 1.4184113 29
1.0795894 -12.594955 2.8007617 18
2.0032246 -7.19757 2.1328535 26
1.2989757 -7.2337213 1.292516 51
2.0054603 -7.25005 1.3764709 32
1.298392 -7.220067 1.9652781 32
1.6502732 -7.291706 2.0549617 183
0.9408442 -7.248948 1.2490681 101
1.6492097 -7.2326617 1.3347535 38
0.9409011 -7.2391467 1.9257258 16
2.0006034 -7.220075 1.8814241 42
1.2934744 -7.2703915 1.0373684 12
1.6473345 -7.259249 1.1653758 62
1.2928634 -7.2571163 1.79848 54
1.6459337 -7.2373962 1.8395197 39
1.2910693 -7.2785316 0.567047 44
1.6453325 -7.2642407 0.8683975 43
0.9355507 -7.2510543 1.7567744 22
1.9975303 -7.239593 1.7137139 35
1.4437124 -3.628309 0.5005983 7
1.612209 -2.3897445 1.0414124 21
1.2884245 -7.2623196 1.6295367 53
0.92673194 -7.234587 1.5872698 25
1.6335825 -7.22782 1.6708754 24
1.293794 -6.923759 3.3972325 16
1.6324897 -7.290558 2.9158478 112
1.2793363 -7.235354 1.4607248 51
1.9847872 -7.2316904 1.5451101 34
1.2158794 -8.646067 2.800635 33
1.6537474 -12.335518 3.0136364 7
0.92097485 -7.2505918 1.4183201 23
1.6294209 -7.230265 1.5027945 63
1.0379097 -12.597159 2.801135 18
1.9798293 -7.2028694 2.133182 22
1.2747102 -7.2446856 1.2921764 51
1.9812467 -7.243387 1.3765566 33
1.2743559 -7.2270226 1.965788 30
1.6262746 -7.2719173 2.053367 150
0.9170631 -7.2467403 1.2490478 102
1.6252874 -7.240793 1.3345829 34
0.91768384 -7.2289815 1.9252388 30
1.9769194 -7.221387 1.8813928 51
1.2697983 -7.2653646 1.0375891 13
1.6235291 -7.263381 1.1651733 58
1.2694207 -7.248094 1.7981081 73
1.6221935 -7.2375307 1.8394922 39
1.2671809 -7.2774835 0.56702304 46
1.6214927 -7.2643695 0.8683698 44
0.91101456 -7.2567897 1.7570558 23
1.9737796 -7.240893 1.7136827 35
1.4317579 -3.6316428 0.4995399 7
1.604533 -2.385857 1.0421336 29
1.2644181 -7.2652617 1.6295937 42
0.9028956 -7.2202697 1.5870769 39
1.6086164 -7.227915 1.6708477 24
1.2702754 -6.914974 3.3950763 19
1.6073127 -7.2867284 2.9150472 113
1.2539642 -7.242201 1.4606767 47
1.9596034 -7.229016 1.545044 32
1.186164 -8.64075 2.8000035 34
1.6109598 -12.335658 3.0135882 7
0.89554477 -7.2521777 1.4182647 25
1.6044443 -7.230345 1.5027668 65
0.99439985 -12.591171 2.8006763 18
1.2496829 -7.243526 1.2921526 54
1.9566172 -7.252684 1.3764077 35
1.2490137 -7.233837 1.966298 27
1.6011715 -7.295914 2.0552194 174
0.89164245 -7.24831 1.2488995 103
1.6002756 -7.248856 1.3343914 35
0.8923326 -7.23055 1.9254627 28
1.9515555 -7.2186794 1.8811618 48
1.2448605 -7.2562017 1.0380754 15
1.5984327 -7.2594423 1.1653203 57
1.2449718 -7.2349424 1.7975624 102
1.597195 -7.241579 1.8396616 30
1.2418375 -7.280257 0.5664995 55
1.596389 -7.272389 0.86766684 44
0.8859526 -7.2543607 1.7570357 24
1.9489601 -7.2461686 1.7137785 34
1.4189587 -3.6387613 0.49743444 7
1.5964667 -2.3898096 1.0413957 39
1.2395203 -7.2600718 1.629489 42
0.8759058 -7.2256455 1.5871725 39
1.5824072 -7.2199216 1.6706114 24
1.2454158 -6.9098964 3.3939872 22
1.5808947 -7.2828083 2.9142463 112
1.228299 -7.2289195 1.4606894 42
1.9335558 -7.234302 1.5450464 30
1.1545715 -8.643148 2.8005776 33
1.5660117 -12.339611 3.0140328 7
0.8688317 -7.2535453 1.4182097 28
1.5782185 -7.226333 1.5027279 62
0.94811636 -12.596838 2.801467 19
1.9321165 -7.277083 2.139594 104
1.2233979 -7.242213 1.2921288 44
1.9301113 -7.249968 1.3764343 33
1.5746886 -7.299879 2.0555046 142
0.8645369 -7.2536387 1.2486227 101
1.5739951 -7.2408304 1.3345274 33
0.86449504 -7.2438188 1.9264178 14
1.9251823 -7.2159524 1.8809094 60
1.2168576 -7.286765 1.0360941 26
1.5718759 -7.2554007 1.1654885 56
1.2182906 -7.2375937 1.7977335 101
1.570936 -7.2375464 1.8394367 39
1.2154093 -7.278911 0.5664757 53
1.5699909 -7.272344 0.8676389 43
0.8588251 -7.2596674 1.7573175 24
1.9224863 -7.243425 1.7136191 33
1.4062879 -3.6303778 0.4995172 7
1.5879568 -2.3937302 1.0406579 75
1.2136022 -7.2507334 1.6293036 38
0.8513591 -7.219113 1.5870955 40
1.557443 -7.2238345 1.6706884 25
1.2219976 -6.9009438 3.3918319 24
1.5557245 -7.286646 2.9149914 112
1.2031074 -7.2315903 1.4606539 42
1.9085603 -7.2354417 1.5450152 26
1.1244574 -8.645511 2.8011525 26
1.5231801 -12.34341 3.0144787 8
0.844188 -7.246989 1.4182256 29
1.5531784 -7.238231 1.502734 66
1.1983764 -7.2408705 1.2921054 54
1.9052287 -7.2550907 1.3763444 18
1.1977916 -7.2311826 1.966251 39
1.5494454 -7.303755 2.0557904 126
0.83906084 -7.25502 1.2484747 68
1.5488961 -7.252711 1.3342543 25
0.8403099 -7.2332845 1.9259112 38
1.9004223 -7.221055 1.881099 56
1.1925675 -7.269455 1.0370495 10
1.5468047 -7.2552752 1.1654612 24
1.1930676 -7.240226 1.7978842 101
1.5457394 -7.2334146 1.8392333 41
1.1902506 -7.2735686 0.56697285 61
1.5447993 -7.2801814 0.86693656 13
0.83375037 -7.2570534 1.7572982 22
1.8974609 -7.244526 1.7135881 33
1.3932191 -3.641256 0.49636507 7
1.5800127 -2.374026 1.044297 84
1.1876519 -7.2653294 1.6296039 38
0.82726026 -7.220585 1.5871341 40
1.5337504 -7.223672 1.6706618 25
1.1987283 -6.9112225 3.3950098 21
1.5317652 -7.2943306 2.9165096 112
1.179157 -7.2342443 1.4606189 42
1.8845084 -7.22845 1.544916 20
1.4825549 -12.339143 3.0139394 9
0.8204198 -7.244458 1.4182066 30
1.5295119 -7.230054 1.5026852 58
1.1710238 -7.3179865 2.2486 113
2.090988 -12.577571 2.6183126 27
1.1743913 -7.243507 1.2919774 54
1.8809583 -7.244091 1.3764901 34
1.1736119 -7.237797 1.966762 21
1.5255314 -7.299579 2.0554504 134
0.815264 -7.2524724 1.2484558 37
1.5252243 -7.240521 1.3344736 29
0.8174517 -7.2228045 1.9254049 37
1.876739 -7.2220306 1.8810688 57
1.1687186 -7.268079 1.0370266 12
1.5229609 -7.259071 1.1652596 33
1.1695602 -7.2348657 1.7976875 101
1.5219328 -7.241203 1.8396013 37
1.1663833 -7.272183 0.56694996 68
0.81016046 -7.250507 1.7571492 26
1.8735461 -7.241496 1.7134303 32
1.3823204 -3.6251488 0.50054246 7
1.5723594 -2.3778949 1.0435596 66
1.1643008 -7.255955 1.6294193 39
0.79930353 -7.233622 1.5873457 54
1.5074872 -7.227397 1.670739 21
1.1732099 -6.917426 3.397121 22
1.5052576 -7.2979803 2.9172552 112
1.152167 -7.244647 1.4605594 32
1.8584181 -7.23346 1.5449195 21
1.148573 -7.284333 2.5937219 111
1.4375993 -12.338653 3.0138927 9
0.7936906 -7.245543 1.4181523 30
1.503221 -7.233764 1.5026693 52
1.1447204 -7.312415 2.2481608 114
2.0450077 -12.575327 2.6178982 31
1.1478553 -7.2459054 1.2918494 41
1.8548063 -7.2490873 1.3764004 30
1.1471041 -7.2401867 1.967006 48
1.4990444 -7.299278 2.0554233 134
0.7885013 -7.253536 1.2483084 32
1.4989457 -7.2402143 1.3344468 30
0.7894729 -7.2357774 1.9263608 17
1.8502529 -7.215033 1.880597 51
1.1428385 -7.258495 1.0374932 14
1.4965003 -7.2667475 1.1648827 32
1.1428076 -7.2412343 1.7980126 103
1.4956009 -7.2448826 1.8397715 28
1.139232 -7.282441 0.56542826 63
1.4944296 -7.2676845 0.8679167 50
0.782961 -7.255524 1.7574319 24
1.8470417 -7.242457 1.7134205 33
1.3688171 -3.6281853 0.49949437 7
1.5640802 -2.3659947 1.0457399 56
1.1379714 -7.2543254 1.6293966 37
0.7772936 -7.2271113 1.5872694 44
1.4851675 -7.2190905 1.6705049 30
1.1517582 -6.916074 3.3971 21
1.4825408 -7.301591 2.9180017 112
1.1301844 -7.2352357 1.4605615 44
1.8360825 -7.2382503 1.5449245 20
1.0375237 -8.644267 2.8016737 30
1.3990394 -12.342071 3.0143409 8
0.7711894 -7.2429886 1.4181337 30
1.4808846 -7.2254415 1.5026214 43
2.005374 -12.564738 2.6167674 32
1.1250889 -7.2484536 1.2917218 32
1.8324174 -7.253865 1.3763123 30
1.1248848 -7.2347636 1.966717 39
1.4763105 -7.3029284 2.0557106 118
0.76505995 -7.258908 1.2480326 39
1.4763895 -7.2438755 1.3343389 29
0.76655114 -7.237178 1.9265859 38
1.8279741 -7.219794 1.8807882 48
1.4740636 -7.2584095 1.1652069 33
1.1203221 -7.2397785 1.7979904 75
1.4731718 -7.240541 1.8395486 47
1.116342 -7.284929 0.56490636 55
0.75997245 -7.256908 1.7575638 24
1.8245482 -7.243214 1.7133912 28
1.3576732 -3.6274521 0.49948376 7
1.5565373 -2.3737395 1.0442793 45
1.1154852 -7.2488537 1.6293144 39
0.7493457 -7.227886 1.5873091 45
1.1249647 -6.9220166 3.3992114 18
1.4546305 -7.3089557 2.9195197 112
1.1029427 -7.229403 1.4605516 45
1.8083186 -7.2311234 1.5448248 21
1.0043409 -8.64601 2.8022494 39
1.3519223 -12.341231 3.0142946 7
0.7422363 -7.251683 1.4180094 28
1.4530019 -7.244942 1.5026501 29
0.72832644 -12.603501 2.8033466 16
1.9575058 -12.570208 2.6170726 31
1.0983487 -7.2346234 1.2920154 46
1.8044825 -7.242726 1.3764576 28
1.0962718 -7.248828 1.967762 19
1.4484574 -7.306404 2.0559971 117
0.7383971 -7.2477207 1.248272 46
1.4488364 -7.2433624 1.3343124 30
0.73950833 -7.229976 1.9263245 42
1.8008529 -7.23261 1.8814187 21
1.0926863 -7.255154 1.0374489 49
1.4464527 -7.2578874 1.1651803 36
1.091398 -7.2578316 1.7988378 59
1.4455532 -7.2440124 1.8397193 47
1.0891798 -7.275111 0.56588346 108
1.4441161 -7.2707815 0.86752677 70
0.7319052 -7.2576137 1.7576966 21
1.79689 -7.2400436 1.713233 27
1.3442745 -3.6226559 0.5005205 7
1.5478584 -2.3657055 1.0457306 26
1.0876379 -7.250944 1.6293731 39
0.7241602 -7.224878 1.5873119 39
1.4324036 -7.2340775 1.6708701 71
1.1008029 -6.924183 3.400258 17
1.4296604 -7.296653 2.9171772 112
1.0782511 -7.2236485 1.4605429 45
1.7834318 -7.2358203 1.5448304 24
0.9747149 -8.639954 2.8016214 39
1.309201 -12.336343 3.0137587 7
0.7171807 -7.2486587 1.4179924 26
1.4280608 -7.2404003 1.5026143 40
0.68488574 -12.596435 2.8028932 15
1.9139836 -12.575381 2.6173813 31
1.0730593 -7.23683 1.2918892 45
1.7796508 -7.251406 1.3763113 28
1.0721006 -7.2351 1.9669406 22
1.4234054 -7.297875 2.0553455 117
0.7133532 -7.244683 1.248255 39
1.4237078 -7.246803 1.3342056 30
0.71307683 -7.2388325 1.9270384 18
1.7754713 -7.217313 1.8805084 39
1.0673202 -7.2573333 1.037183 45
1.4213681 -7.2573204 1.1651554 41
1.0657372 -7.263998 1.7991647 42
1.4207217 -7.235457 1.8393003 45
1.063448 -7.2812104 0.56486315 110
1.4189835 -7.270206 0.86750185 67
0.7073211 -7.2505856 1.7575291 20
1.7718718 -7.2407026 1.7132043 36
1.331593 -3.6256018 0.4994635 7
1.5394614 -2.3812485 1.0428052 17
1.0616988 -7.261091 1.6295946 32
0.6994664 -7.2298856 1.5874101 45
1.4087849 -7.2294993 1.6707405 60
1.0789995 -6.9109774 3.397038 21
1.4054365 -7.307837 2.9194689 112
1.0536647 -7.2338576 1.4604844 47
1.7597091 -7.2364025 1.5448012 25
0.94605553 -8.641793 2.8021984 39
0.69292986 -7.249674 1.417939 26
1.4043345 -7.2398043 1.5025887 41
0.6431231 -12.597315 2.8032708 18
1.8725026 -12.572387 2.61697 31
1.049048 -7.239043 1.2917622 45
1.7556354 -7.2399783 1.3764584 26
1.0490162 -7.225368 1.9663855 24
1.3995086 -7.297266 2.0553198 118
0.6891294 -7.245685 1.2481085 45
1.3999794 -7.2461915 1.3341801 29
0.6883844 -7.2437925 1.9275078 30
1.7520169 -7.2258554 1.8809202 37
1.0432539 -7.2595224 1.0369166 45
1.3974991 -7.260696 1.164955 45
1.0425813 -7.2542357 1.7987952 73
1.3967147 -7.2468185 1.8398663 37
1.0396132 -7.279404 0.56484145 110
1.395078 -7.273562 0.86713874 56
0.68310434 -7.2515726 1.7576619 22
1.7481074 -7.237249 1.7130477 37
1.3198591 -3.6247032 0.49945325 7
1.5319635 -2.377116 1.0435271 14
1.0379522 -7.2592845 1.629573 42
0.6737495 -7.2225823 1.5873352 64
1.3822107 -7.2327495 1.67084 67
1.0525191 -6.9244003 3.4013033 12
1.3788157 -7.3110166 2.9202156 112
1.0274187 -7.2318196 1.4604632 45
1.7334498 -7.2369537 1.5447717 24
0.91435117 -8.643297 2.8027754 41
0.66713923 -7.242346 1.4179573 30
1.3780649 -7.2390523 1.5025634 39
0.5965984 -12.601673 2.8040652 18
1.8267629 -12.577303 2.6172776 31
1.0224631 -7.240974 1.2916358 41
1.7295771 -7.2525105 1.3762525 26
1.0221713 -7.231271 1.9668978 30
1.372787 -7.304469 2.0559206 117
0.661813 -7.250239 1.2478342 41
1.3736844 -7.245423 1.3341548 26
0.66364956 -7.2285385 1.92676 33
1.7256607 -7.2183933 1.88045 36
1.016909 -7.257444 1.0368954 43
1.3708975 -7.267905 1.1645794 36
1.0165856 -7.2481747 1.7986001 75
1.3705497 -7.2420473 1.8396438 42
1.0131898 -7.27731 0.5648202 110
1.3686773 -7.2727733 0.8671133 51
0.6567993 -7.2481766 1.7576449 21
1.7222538 -7.261742 1.7137827 42
1.3065218 -3.627509 0.49839604 8
1.523265 -2.384724 1.0420605 15
1.011292 -7.2611756 1.6296326 41
0.6482841 -7.223283 1.5873758 70
1.3573633 -7.2279634 1.670711 65
1.0283189 -6.9263086 3.4023497 9
1.3533503 -7.3102036 2.9202113 112
1.001227 -7.2417383 1.4604261 45
1.7084501 -7.237388 1.544743 22
0.88380617 -8.648751 2.8039558 42
1.2242856 -11.055234 2.8549156 51
0.64055014 -7.250952 1.4178339 33
1.3530594 -7.2382455 1.5025387 34
0.5518968 -12.610005 2.8052766 20
1.7830675 -12.574051 2.6168673 30
0.9974507 -7.238925 1.2916149 42
1.7045211 -7.2529316 1.3762237 24
1.3474218 -7.3076315 2.056209 117
0.63571525 -7.254856 1.2475601 44
1.3487935 -7.240604 1.3342121 27
0.63658154 -7.2410693 1.9277176 25
1.7008414 -7.2267895 1.8808621 39
0.99150234 -7.2593527 1.0366297 43
1.3462065 -7.2550907 1.1650798 20
0.99155354 -7.2461076 1.7985793 74
1.3453976 -7.2452083 1.8398162 45
0.98804253 -7.275226 0.5647993 110
1.3436873 -7.2679477 0.86742616 50
0.63070947 -7.252776 1.7579293 22
1.6970081 -7.2501454 1.7133719 42
1.2941173 -3.6264706 0.49838626 7
1.515205 -2.3844519 1.0420532 22
0.98688734 -7.2511187 1.6294503 44
0.62478137 -7.228195 1.587474 72
1.3346207 -7.23517 1.6708951 66
1.0078245 -6.912974 3.3991308 10
1.3322444 -7.266268 2.9116905 106
0.9790765 -7.2358475 1.4604177 45
1.685792 -7.241694 1.5447705 20
0.8563432 -8.6504 2.8045585 43
1.1899652 -11.050047 2.8543854 43
0.61802965 -7.247911 1.4178169 33
1.3304275 -7.2414417 1.5025253 35
0.51288724 -12.602698 2.8048236 18
1.7438203 -12.574579 2.6168182 31
0.9749649 -7.2370048 1.2915943 42
1.6819887 -7.2532344 1.3761959 27
0.9744075 -7.2312818 1.9671233 61
1.324726 -7.3068137 2.0561845 117
0.6131842 -7.2517996 1.2475432 41
0.61301845 -7.24593 1.9281877 51
1.678353 -7.223089 1.880614 36
0.96895003 -7.2574124 1.0366092 43
0.96870327 -7.248152 1.7987326 75
1.3233542 -7.232408 1.8392007 40
0.9654354 -7.2732735 0.5647786 110
1.3207986 -7.27508 0.86672646 17
0.60710174 -7.257625 1.7582135 22
1.6744878 -7.2504263 1.7133441 45
1.2823035 -3.6331902 0.49628222 7
0.96366733 -7.257135 1.6295912 37
0.59910715 -7.2206206 1.5874002 58
1.3085283 -7.2301636 1.6707665 66
0.9831184 -6.906935 3.398045 11
1.3062091 -7.25741 2.910121 106
0.95282036 -7.233533 1.4603974 42
1.6594114 -7.229972 1.5446389 29
0.8249164 -8.647632 2.804534 46
1.1490331 -11.060369 2.8558583 42
0.59040296 -7.252186 1.4177502 30
1.3041484 -7.2404156 1.5025009 39
0.46661246 -12.602608 2.8052034 19
1.6980263 -12.579022 2.6171272 30
0.9479845 -7.2426395 1.2913632 45
0.9467383 -7.2448516 1.9681699 27
1.2982141 -7.305768 2.05616 117
0.58742046 -7.244182 1.2476557 46
1.2995291 -7.2507334 1.3339171 46
0.5861789 -7.246228 1.9284152 40
1.6521149 -7.219346 1.8803653 39
0.94260985 -7.2550597 1.0365888 44
1.2971704 -7.2572064 1.1648561 36
0.94240606 -7.2458 1.7987124 74
1.2966106 -7.243332 1.8397676 33
0.9383117 -7.2788095 0.56375897 110
1.2945566 -7.270034 0.86703974 28
0.5818852 -7.2460313 1.7578963 22
1.6481766 -7.2506633 1.7133156 43
1.269245 -3.6320071 0.49627268 8
0.9376993 -7.2507806 1.6294903 42
0.5719172 -7.232931 1.5876143 55
1.2837315 -7.225119 1.6706383 54
0.9578695 -6.920111 3.4022913 10
1.2809834 -7.260278 2.9108691 103
0.9259823 -7.2511535 1.4603157 27
1.6344557 -7.234146 1.5446452 37
0.79501045 -8.644888 2.8045096 44
1.110876 -11.054778 2.855328 42
0.56592155 -7.244668 1.4177697 30
1.2787377 -7.2433343 1.5025086 40
0.42157066 -12.610459 2.8064532 20
1.6543672 -12.575318 2.6167183 29
0.9218483 -7.252271 1.2910273 29
1.6305876 -7.249657 1.3761982 57
0.9224663 -7.234592 1.9676166 39
1.2726252 -7.31265 2.0567622 117
0.56239915 -7.240611 1.2476399 46
1.2748413 -7.2416596 1.3340576 48
0.56172633 -7.238704 1.9281559 19
1.6271809 -7.2194963 1.8803375 39
0.9160474 -7.2686276 1.0355895 28
1.2720987 -7.256114 1.1648322 39
0.91738325 -7.243471 1.7986925 75
1.2715946 -7.2422395 1.8397437 41
0.91278636 -7.2804112 0.56323934 68
1.269618 -7.264949 0.86735356 31
0.55686355 -7.242443 1.7578804 24
1.6231188 -7.2467995 1.7131604 42
1.2571898 -3.6269932 0.49731052 8
1.4919846 -2.3716948 1.0442206 127
0.9122789 -7.2524166 1.6295512 41
0.5487759 -7.2255335 1.5875409 58
1.2598481 -7.2280354 1.6707189 25
0.93335897 -6.937148 3.4076047 18
1.2571847 -7.259196 2.9108458 105
0.90373623 -7.232961 1.4603454 29
1.6107156 -7.2262316 1.5445493 31
0.7662398 -8.646121 2.8050888 42
1.0744894 -11.05311 2.8552916 41
0.54100454 -7.2491226 1.4176828 31
1.2549802 -7.242239 1.5024852 30
0.3800261 -12.606496 2.806418 20
1.6127149 -12.575429 2.6167073 30
0.897837 -7.249982 1.2910281 46
1.6068093 -7.253726 1.376112 57
0.89835876 -7.236287 1.9678636 37
1.248452 -7.315518 2.0570517 117
0.5369086 -7.249002 1.2472379 44
1.2508948 -7.244543 1.3339518 47
0.5379926 -7.23523 1.9281399 35
1.6035064 -7.2235503 1.8805306 33
0.8925911 -7.262351 1.0358145 30
1.2479069 -7.262976 1.1644584 43
0.8924641 -7.2531085 1.7991942 74
1.2476499 -7.2451105 1.8399173 43
0.88696414 -7.2978454 0.56072086 110
1.2455876 -7.2678 0.8669923 36
0.5301963 -7.2587233 1.7586173 27
1.5993495 -7.250844 1.7132604 25
1.2454189 -3.625841 0.49730122 8
1.4843829 -2.3713307 1.0442135 92
0.8881036 -7.2540836 1.6296122 42
0.52263904 -7.2297378 1.5876404 55
1.2348804 -7.226812 1.6706955 29
0.90981144 -6.9309573 3.40652 9
1.2317237 -7.2658076 2.9123669 102
0.87795585 -7.238454 1.4603012 34
1.5857426 -7.2302327 1.5445563 30
0.73594135 -8.647105 2.805668 40
1.0357723 -11.059151 2.8562407 42
0.5153719 -7.2493434 1.4176317 30
1.2303708 -7.233009 1.5024399 37
0.33589494 -12.60613 2.8067994 21
1.5690799 -12.57541 2.616659 28
0.8731909 -7.2435136 1.2911141 45
1.5815228 -7.2537036 1.3761055 56
0.8719442 -7.245705 1.968665 18
1.2246959 -7.2863836 2.0548291 116
0.5119424 -7.245256 1.247216 46
1.2257302 -7.247284 1.3338397 43
0.51188946 -7.2393856 1.9286051 34
1.5786264 -7.223532 1.8804966 25
0.8675702 -7.259845 1.0357885 35
1.2228835 -7.261712 1.1644282 41
0.8670816 -7.254582 1.7993419 57
1.2224877 -7.2478385 1.8400843 47
0.86261517 -7.2874203 0.5616942 107
1.2203352 -7.270507 0.86662436 34
0.504601 -7.2589083 1.7587459 19
1.5743287 -7.2628036 1.7136083 54
1.2330923 -3.6245868 0.497289 8
1.476443 -2.3709216 1.0442047 50
0.8631184 -7.251565 1.6295862 42
0.49714017 -7.229897 1.5876763 31
1.2097759 -7.229499 1.6707698 32
0.88637495 -6.924691 3.405429 13
1.2067139 -7.2644963 2.9123368 101
0.85302705 -7.2358994 1.4602754 34
1.560839 -7.230152 1.5445224 34
0.70447826 -8.659786 2.8080478 11
0.9972976 -11.061094 2.8566875 38
0.48979998 -7.2494764 1.4175745 26
1.2050217 -7.2396736 1.502432 42
0.29182673 -12.605613 2.8071697 21
1.5255206 -12.575243 2.616599 28
0.8478282 -7.24492 1.290983 42
1.5565844 -7.2456083 1.3761895 59
0.8478234 -7.235193 1.9681058 46
1.1990888 -7.2890086 2.05514 115
0.4860854 -7.245363 1.2470927 44
1.2006956 -7.24594 1.3338165 43
0.48506773 -7.2473893 1.9293207 21
1.5537049 -7.2194285 1.8802494 33
0.8424904 -7.257249 1.0357695 36
1.1980183 -7.256367 1.1645803 42
0.84161216 -7.255962 1.7994967 45
1.1974566 -7.2464857 1.8400612 41
0.836605 -7.292699 0.56067556 109
1.1952139 -7.269141 0.8666012 35
0.48014605 -7.2510967 1.7585804 28
1.5493561 -7.2466874 1.7130721 41
1.2198902 -3.630965 0.49518567 7
1.4684318 -2.370481 1.044198 22
0.83681655 -7.2608876 1.6298094 33
0.46905386 -7.237666 1.5878341 49
1.1837752 -7.2240353 1.6706429 34
0.8612834 -6.9220433 3.4054108 13
1.1803684 -7.263018 2.912314 78
0.82634526 -7.237096 1.4602443 33
1.5345275 -7.2379665 1.5445638 34
0.5704671 -9.611871 2.9544792 5
0.4634968 -7.2453637 1.41756 36
1.1787506 -7.2381835 1.502409 43
0.24419689 -12.616564 2.8088007 21
1.4796948 -12.574897 2.6165514 29
0.8211095 -7.246095 1.2908587 41
1.5302877 -7.245407 1.3761624 59
0.8215766 -7.232395 1.9680872 43
1.1721747 -7.29546 2.0557432 108
0.4597919 -7.2412353 1.2470783 44
1.1741759 -7.244424 1.3338145 41
0.45606256 -7.2590246 1.9303007 38
1.52751 -7.2192173 1.8802226 35
0.8157213 -7.258395 1.0355059 35
1.1712089 -7.2628274 1.1642072 42
0.81485593 -7.2571115 1.7996519 73
1.1716386 -7.236991 1.8396446 36
0.8109884 -7.281962 0.5616564 107
1.1690645 -7.263632 0.8669163 33
0.45321512 -7.2508965 1.7587167 28
1.5229728 -7.254454 1.7132998 47
1.2068403 -3.6295485 0.49517697 8
1.4595388 -2.3778384 1.042732 16
0.81003785 -7.262022 1.6298715 30
0.4446925 -7.2297297 1.5877624 45
1.1580911 -7.234517 1.6709324 39
0.83698595 -6.9232664 3.4064598 15
1.1550555 -7.2654366 2.9130638 47
0.80134964 -7.234356 1.4602259 33
1.5096779 -7.225701 1.5444348 30
0.53806865 -9.6003685 2.953249 6
1.1508007 -7.300573 2.389449 114
0.43783915 -7.2453055 1.41751 38
1.15375 -7.236675 1.5023866 43
0.20043528 -12.611764 2.8087678 20
1.4360685 -12.57441 2.6165047 32
0.79563826 -7.2473097 1.290735 39
1.5051516 -7.2531223 1.3760182 58
0.7943925 -7.249473 1.9694023 19
1.1469798 -7.293929 2.0557208 114
0.43350756 -7.2451077 1.2468066 47
1.1489017 -7.246889 1.33371 36
0.4341817 -7.2352858 1.9290689 34
1.5022986 -7.2229104 1.8804374 37
0.7895352 -7.2635446 1.0350183 33
1.1463686 -7.2573013 1.1643599 36
0.7902399 -7.250361 1.7994597 101
1.1458929 -7.2474203 1.8402131 40
0.78494096 -7.2870517 0.56063837 107
1.1437168 -7.2660646 0.866556 26
0.42753732 -7.250799 1.7588527 29
1.4979727 -7.25015 1.7131461 41
1.1944295 -3.6281555 0.49516833 7
1.4512548 -2.3812625 1.0419958 11
0.78495723 -7.2592254 1.629853 30
0.41908026 -7.2296042 1.5878056 47
1.133105 -7.2329364 1.6709101 39
0.8117975 -6.932064 3.4096413 10
1.1292117 -7.2755995 2.9153585 39
0.77454764 -7.247425 1.4601582 30
1.4845897 -7.233346 1.544477 29
0.5043895 -9.600542 2.9538271 8
1.1261095 -7.291047 2.388441 45
0.41216803 -7.245155 1.4174603 37
1.1284931 -7.23907 1.5023752 42
0.15578365 -12.614717 2.8095675 19
1.3923781 -12.577755 2.616818 31
0.77014935 -7.248434 1.2906114 41
1.4800954 -7.252753 1.375992 43
0.770728 -7.234729 1.9685841 46
1.1199558 -7.320165 2.0578902 108
0.40718246 -7.2488847 1.2465351 47
1.123605 -7.2492657 1.3336055 30
0.40789902 -7.239057 1.9295418 39
1.4774224 -7.2185388 1.8801911 36
0.76490086 -7.2567086 1.0352451 36
1.120545 -7.263643 1.1640081 42
0.7645193 -7.2514553 1.7996359 75
1.1211269 -7.24181 1.8399942 42
0.7602159 -7.2802196 0.56112015 107
1.1178149 -7.276359 0.86552054 18
0.40119076 -7.2545533 1.7591399 30
1.4729998 -7.245758 1.7129929 46
1.1824667 -3.622883 0.49620718 7
1.4437307 -2.3728833 1.0434487 9
0.75988483 -7.25634 1.6298351 33
0.39602852 -7.221707 1.5877342 47
1.1101956 -7.2193847 1.6705766 37
0.7886411 -6.933252 3.4106908 13
1.1053581 -7.274008 2.9153366 52
0.7517083 -7.236706 1.460165 29
1.4607813 -7.2369275 1.5444857 22
0.4719007 -9.604719 2.9550083 8
0.8434536 -11.059568 2.8575344 36
0.3877412 -7.2451234 1.4174107 39
1.1050198 -7.233479 1.5023428 44
0.113752484 -12.613815 2.8099515 19
1.3510067 -12.573023 2.616413 31
0.7473091 -7.2377024 1.2908044 41
1.456299 -7.2523184 1.3759664 37
0.7455942 -7.2438335 1.9693662 41
1.0948436 -7.334451 2.0591207 108
0.38273966 -7.2488327 1.2463925 33
1.1003752 -7.2396693 1.3337483 34
0.38416004 -7.235068 1.9295279 64
1.4536629 -7.222092 1.8803859 37
0.7410917 -7.2539005 1.0352273 37
0.74167985 -7.2407126 1.7992706 75
1.0968734 -7.2441616 1.8401902 40
0.7351634 -7.2852697 0.56012326 107
0.37740946 -7.250541 1.7591251 36
1.4491568 -7.249299 1.7130939 47
1.1688861 -3.6368108 0.4920094 6
1.435307 -2.384124 1.0412531 9
0.7360941 -7.253517 1.6298165 36
0.36647224 -7.2369595 1.5880075 49
1.0837272 -7.2215333 1.6706581 34
0.76584995 -6.9111056 3.4053416 15
1.079555 -7.264326 2.9137692 65
0.7249813 -7.237521 1.4601345 26
1.4344391 -7.2403708 1.5444933 26
0.435562 -9.612304 2.9567916 6
0.8023484 -11.068607 2.8589778 40
0.3580848 -7.2603445 1.4172187 49
1.0782068 -7.2395988 1.5023421 47
0.06781161 -12.608291 2.8099189 16
1.3053931 -12.564068 2.6156473 29
0.7196064 -7.246438 1.2904699 33
1.4299909 -7.2517467 1.3759398 45
0.71884537 -7.24462 1.9696147 24
1.0685349 -7.3285785 2.058785 109
0.35577142 -7.248264 1.2462499 41
1.073824 -7.2417808 1.3336438 33
0.35725117 -7.234502 1.9297576 56
1.4275682 -7.217519 1.8801392 35
0.7138071 -7.25863 1.0347192 32
1.0709529 -7.2521534 1.1643145 102
0.7139643 -7.249421 1.7997737 101
1.0703104 -7.2462583 1.8403647 31
0.7082455 -7.2859893 0.55960524 106
1.0679069 -7.26486 0.8661728 69
0.34816265 -7.26176 1.7597344 29
1.422846 -7.248701 1.713069 45
1.1572236 -3.6237097 0.49514353 3
1.4271163 -2.3795826 1.0419767 8
0.708304 -7.262212 1.630042 26
0.34078133 -7.236551 1.5880525 51
1.0581737 -7.227664 1.6708456 29
0.74295753 -6.90051 3.4031932 25
1.0544672 -7.262472 2.9137487 64
0.6999728 -7.234424 1.460118 45
1.4095238 -7.2357535 1.5444347 26
0.4022783 -9.608189 2.9567695 6
0.7633749 -11.073678 2.8599315 39
0.3329985 -7.2559657 1.4172063 37
1.0534921 -7.2337465 1.5023109 47
0.0230757 -12.610766 2.8107216 18
1.2614677 -12.574918 2.6166825 29
0.6945647 -7.2433214 1.2904536 49
1.4050363 -7.247113 1.3759743 45
0.69481313 -7.233584 1.9690651 41
1.0429094 -7.33066 2.0590773 107
0.33003318 -7.247813 1.2461088 41
1.0478812 -7.251864 1.3333768 34
0.329494 -7.2458506 1.9307193 28
1.4025195 -7.22087 1.8803352 34
0.68722194 -7.267375 1.033968 27
1.0458881 -7.250263 1.1642941 101
0.68891823 -7.246287 1.7997574 102
1.0455801 -7.2403846 1.8401475 35
0.6835555 -7.2788916 0.56008863 52
1.0415678 -7.2788534 0.86480105 83
0.32307506 -7.2573476 1.7597221 30
1.3975819 -7.2480307 1.7130647 43
1.1436319 -3.6297934 0.4930507 1
1.4181634 -2.3907278 1.0397813 7
0.6827171 -7.2630234 1.6301054 23
0.31705296 -7.232337 1.5880393 49
1.0341575 -7.229817 1.6709286 39
0.71938163 -6.905287 3.4053097 21
1.0303543 -7.264543 2.9145002 66
0.6752299 -7.239336 1.4600761 59
1.3857918 -7.235085 1.5444099 26
0.3706962 -9.604169 2.9567463 6
0.72692806 -11.070849 2.8598986 36
0.30920386 -7.251725 1.417193 38
1.0288196 -7.2438593 1.5023223 30
-0.019990325 -12.617309 2.8119392 18
1.2200351 -12.573731 2.6166387 29
0.67029744 -7.244246 1.2903309 63
1.3812647 -7.246429 1.3759495 41
0.6705859 -7.2345037 1.9693146 43
1.0188696 -7.328776 2.059056 107
0.30485332 -7.2514324 1.2458382 39
1.0244138 -7.246008 1.333438 34
0.30573833 -7.2416005 1.930706 30
1.3785926 -7.2281632 1.8807508 24
0.66389596 -7.2603483 1.0341958 33
1.0217861 -7.25237 1.1640979 75
0.6646439 -7.247191 1.799914 103
1.0215178 -7.2424917 1.8403234 34
0.65865195 -7.283682 0.5590719 49
1.0180069 -7.2729883 0.86511785 78
0.2985717 -7.2570095 1.7598593 22
1.3735584 -7.2553144 1.7132943 18
1.1308566 -3.635914 0.49094814 1
1.4105842 -2.3861833 1.0405111 7
0.65764284 -7.267865 1.6302702 23
0.29207528 -7.2278132 1.5880266 44
1.0085301 -7.235769 1.6711156 39
0.6945583 -6.9098215 3.4074264 24
1.0055971 -7.258604 2.913707 68
0.6497017 -7.240028 1.4600469 62
1.3607974 -7.2342935 1.5443852 26
0.33693314 -9.6037445 2.9573264 6
0.6885567 -11.06774 2.8598666 15
0.28343987 -7.2511077 1.4171449 25
1.0037966 -7.2418213 1.5023016 22
-0.06375873 -12.611582 2.8119092 18
1.1760033 -12.584279 2.6176732 30
0.64474815 -7.2449183 1.2902088 65
1.3556844 -7.2616105 1.3756888 42
0.6429806 -7.2509985 1.9706311 24
0.9935563 -7.3267045 2.059035 109
0.27908623 -7.2507973 1.2456969 41
0.99938154 -7.243953 1.3334173 31
0.28001404 -7.2409663 1.930937 24
1.3534887 -7.23134 1.8809464 42
0.63775945 -7.2649493 1.0336893 37
0.9970629 -7.246323 1.1642525 75
0.6375052 -7.2597275 1.8005922 49
0.9955023 -7.2523737 1.8408936 34
0.63243276 -7.2882147 0.5580555 49
0.99287504 -7.27091 0.86509717 78
0.27206695 -7.2602854 1.7601478 25
1.3489163 -7.2424946 1.7128881 36
1.1204679 -3.6189451 0.49512953 1
1.4025191 -2.3855069 1.040505 7
0.6341301 -7.2526393 1.6300118 24
0.2654364 -7.23106 1.5881495 26
0.9842243 -7.2256923 1.6708876 37
0.67072856 -6.9066257 3.4074109 22
0.9798707 -7.2643123 2.9152312 101
0.62469715 -7.236666 1.4600307 60
1.3356619 -7.237412 1.544395 24
0.30263138 -9.607119 2.95851 6
0.25693715 -7.2543316 1.4170614 26
0.9780961 -7.247666 1.5023029 23
-0.10857141 -12.613585 2.8127122 17
1.1327934 -12.570784 2.6165519 30
0.6197246 -7.2415385 1.2901926 62
1.3310499 -7.248723 1.3758415 44
0.6179438 -7.2476153 1.9706149 64
0.9679093 -7.3285184 2.0593276 108
0.2547766 -7.2422104 1.2458136 49
0.97401357 -7.245796 1.3333148 31
0.25501394 -7.2363157 1.9309249 30
1.3288186 -7.2224555 1.880482 39
0.61266315 -7.261544 1.033673 38
0.97133636 -7.2521353 1.1638818 72
0.6140597 -7.2444463 1.800055 72
0.9711524 -7.2422605 1.8404796 35
0.6077881 -7.2808576 0.55853915 52
0.9677538 -7.268743 0.8650769 76
0.24699748 -7.255605 1.7601358 26
1.3239019 -7.2415757 1.7128639 37
1.1154411 -3.5637004 0.5097841 4
1.3944576 -2.3848011 1.0404992 7
0.6063639 -7.269034 1.6303988 49
0.2397219 -7.230286 1.5881951 36
0.9590431 -7.223489 1.6708882 36
0.64350325 -6.926244 3.413813 16
0.95444316 -7.266016 2.9159832 80
0.5986006 -7.2411394 1.4599898 63
1.3103368 -7.244438 1.5444391 25
0.26774204 -9.614285 2.9602962 6
0.49800253 -12.330242 3.0179589 6
0.23113716 -7.253526 1.4170139 30
0.9534182 -7.2414656 1.502272 25
-0.1528759 -12.611486 2.8130994 17
1.0888526 -12.577039 2.6172278 28
0.59415746 -7.24203 1.290071 63
1.3056784 -7.255731 1.3756994 40
0.59402 -7.2362375 1.9700656 63
0.94259757 -7.326268 2.0593073 109
0.22752225 -7.24925 1.2454154 37
0.94862205 -7.2475476 1.3332125 33
0.22928119 -7.235498 1.9311565 33
1.3038731 -7.2214656 1.8804579 39
0.5870218 -7.2620025 1.033412 37
0.94555897 -7.257855 1.1635112 46
0.5884856 -7.2449174 1.8002127 75
0.945416 -7.247979 1.8408533 35
0.58042014 -7.293063 0.55652386 48
0.94191486 -7.2744265 0.86438113 75
0.22044337 -7.258689 1.7604249 27
1.2988876 -7.240567 1.71284 37
1.1059499 -3.5428686 0.51501346 5
1.3863975 -2.384067 1.0404934 7
0.5829307 -7.2536397 1.6301409 53
0.21525967 -7.2296624 1.5882404 37
0.93461764 -7.2292867 1.671076 37
0.62027985 -6.9268565 3.4148638 19
0.9300407 -7.2677345 2.9167562 76
0.5746304 -7.237769 1.4599942 61
1.2869264 -7.2354445 1.5443472 26
0.2355833 -9.613732 2.960877 6
0.4570228 -12.330476 3.018417 6
0.20659375 -7.252872 1.4169661 30
0.92966914 -7.2392797 1.5022522 26
-0.19554365 -12.613482 2.8139029 17
1.0474144 -12.575277 2.6171858 28
0.568709 -7.250527 1.2897385 59
1.2820561 -7.2507176 1.3757347 38
0.56973004 -7.2368126 1.9703163 24
0.91820174 -7.3280187 2.0596004 108
0.20374858 -7.244655 1.2454034 32
0.923731 -7.2572913 1.3329458 25
0.20176613 -7.250511 1.9323618 27
1.2798347 -7.228424 1.8808745 40
0.5620673 -7.2665043 1.032906 37
0.9202547 -7.2715554 1.1627901 27
0.56302583 -7.253389 1.8007178 75
0.92127424 -7.2497454 1.8410305 42
0.5570569 -7.2857084 0.5570077 47
0.918424 -7.268233 0.8646992 60
0.19511986 -7.26192 1.7607137 27
1.2747792 -7.247517 1.7130706 37
1.096112 -3.5297425 0.5181481 5
1.3780142 -2.3911736 1.0390282 6
0.5585735 -7.254184 1.6302056 51
0.18952692 -7.2287073 1.5882865 37
0.90926915 -7.230899 1.6711605 36
0.59583604 -6.927215 3.4159155 21
0.9045788 -7.2692614 2.9175086 77
0.5484798 -7.2420597 1.4599539 61
1.2615222 -7.238292 1.5443785 24
0.2032311 -9.601077 2.9596786 6
0.41387975 -12.330364 3.0188758 7
0.18077564 -7.251884 1.4169192 26
0.90389633 -7.244856 1.5022544 22
-0.24044335 -12.615011 2.8147073 17
1.0036001 -12.577254 2.617504 28
0.5436667 -7.2468786 1.2897233 60
1.2562448 -7.2655416 1.375475 21
0.5441644 -7.237119 1.9705677 40
0.8921242 -7.333531 2.060207 108
0.1748631 -7.2593446 1.2447485 32
0.89711404 -7.2708044 1.3325973 50
0.17441583 -7.257335 1.933081 59
1.2542937 -7.2392297 1.8815114 37
0.53522325 -7.2746816 1.0321558 35
0.8959119 -7.2611794 1.1631213 42
0.5385616 -7.2457695 1.8005289 75
0.8958503 -7.2513065 1.841208 44
0.53188336 -7.2820168 0.55699235 46
0.1692698 -7.260891 1.760853 26
1.2499433 -7.2423425 1.7129202 36
1.0863073 -3.51268 0.5223306 5
1.3707019 -2.3825521 1.0404822 6
0.53235304 -7.2584133 1.6303517 47
0.16299796 -7.2315803 1.5883904 36
0.883501 -7.236399 1.671349 37
0.56966734 -6.938923 3.420166 17
0.8794842 -7.266792 2.9174895 77
0.5222831 -7.246253 1.4599138 52
1.2365183 -7.2370644 1.5443554 24
0.1705823 -9.592231 2.9590554 6
0.3693154 -12.341937 3.0208492 8
0.15393531 -7.2547174 1.4168572 27
0.8792694 -7.238398 1.5022244 20
-0.28479242 -12.612445 2.8150961 18
0.9597591 -12.579077 2.617822 27
0.51744723 -7.251051 1.2894971 58
0.5185803 -7.237334 1.9708192 39
0.8667954 -7.3310137 2.0601873 107
0.8744033 -7.244428 1.333072 39
0.1501422 -7.2483964 1.9328266 45
1.2294966 -7.233989 1.8812683 37
0.51068544 -7.266966 1.0323857 30
0.8708255 -7.2586727 1.1631021 45
0.51175106 -7.253871 1.8010349 72
0.8704034 -7.252777 1.8413858 47
0.50553477 -7.2860837 0.5559775 40
0.86740273 -7.271217 0.8639848 29
0.14261675 -7.2636847 1.761143 26
1.224927 -7.2410746 1.7128971 36
1.0777693 -3.487956 0.5286078 5
1.3626499 -2.381732 1.0404766 6
0.50668526 -7.258592 1.6304172 46
0.1380279 -7.2265153 1.5883797 39
0.8581002 -7.2378287 1.671434 36
0.5492315 -6.912422 3.4137545 21
0.85399806 -7.2681384 2.918243 70
0.49604797 -7.25035 1.459874 30
1.2117385 -7.2317533 1.5442984 39
0.13498974 -9.60282 2.961446 6
0.32651424 -12.337567 3.020816 7
0.1280837 -7.2535396 1.416811 26
0.8536332 -7.2398033 1.502237 20
-0.32875156 -12.605777 2.815106 17
0.91634005 -12.572785 2.617422 29
0.49118924 -7.255126 1.2892712 29
1.2064884 -7.2549696 1.3755469 42
0.4911666 -7.249291 1.9718707 30
0.8410654 -7.3323736 2.0604813 107
0.12393463 -7.2531238 1.2445982 105
0.849381 -7.2418456 1.3330531 37
0.12271762 -7.2550225 1.9335463 18
1.2047358 -7.2286606 1.8810254 36
0.48497438 -7.2670584 1.032126 26
0.8453358 -7.2600517 1.1629081 40
0.4873129 -7.246075 1.8008466 75
0.84494144 -7.254156 1.8415637 45
0.4785422 -7.293976 0.5544631 46
0.84228176 -7.2686086 0.8639659 28
0.117536545 -7.2585487 1.7611325 25
1.1996953 -7.2437096 1.7130014 36
1.0664451 -3.4822881 0.5296487 5
1.3550137 -2.3769722 1.041201 6
0.48223138 -7.2507753 1.630322 45
0.111813545 -7.2211013 1.5883698 40
0.8309907 -7.2430086 1.6716232 24
0.5235919 -6.9123344 3.4148073 20
0.82764256 -7.2653556 2.9182243 69
0.46788406 -7.258104 1.4598224 64
1.1850343 -7.238263 1.5443438 39
0.09946513 -9.601291 2.9620295 6
0.27860856 -12.360445 3.0242324 7
0.09851682 -7.263755 1.4166584 26
0.82650983 -7.2449684 1.50224 20
-0.3765272 -12.61041 2.8163285 15
0.46464062 -7.2509985 1.2892776 47
1.1803851 -7.2494793 1.3755842 41
0.46610415 -7.2372875 1.9713243 41
0.81317145 -7.3414326 2.0614023 106
0.09598017 -7.255484 1.2443316 102
0.8226641 -7.243015 1.3329532 37
0.09802294 -7.2417355 1.9330506 30
1.178501 -7.227159 1.8810036 31
0.456102 -7.278688 1.0311326 44
0.81941044 -7.253256 1.1630659 42
0.45914602 -7.253783 1.8013542 72
0.81904626 -7.247363 1.8413495 49
0.44957507 -7.3054852 0.55245036 66
0.81546026 -7.2697363 0.86361045 30
0.08874571 -7.2647977 1.7615747 21
1.1729277 -7.25017 1.7132338 30
1.0539334 -3.4802988 0.52964294 5
1.3452809 -2.38778 1.0390066 7
0.4540373 -7.2584724 1.6305505 46
0.08522296 -7.2236843 1.5884755 38
0.8059721 -7.240276 1.6716058 18
0.49792087 -6.9199567 3.4179933 19
0.8012731 -7.2743196 2.9205234 78
0.44345272 -7.2501535 1.4598216 53
1.1602844 -7.232775 1.5442883 34
0.066872 -9.5920925 2.9614089 7
0.2357707 -12.355761 3.0242019 9
0.07178795 -7.266293 1.4165779 26
0.80194443 -7.2382455 1.5022118 23
0.4383452 -7.2548842 1.2890532 48
1.1551235 -7.251958 1.3755035 43
0.43987107 -7.241165 1.971844 42
0.788734 -7.3307147 2.0607588 106
0.070957065 -7.2501903 1.2443223 102
0.79635066 -7.2521777 1.3326887 36
0.070575714 -7.2481694 1.9337716 28
1.1535845 -7.2256413 1.8809822 39
0.4316337 -7.2707076 1.0313641 47
0.7935116 -7.258427 1.1626976 43
0.43286788 -7.2576494 1.8016881 63
0.7931783 -7.252534 1.8417256 46
0.4275527 -7.281835 0.5549363 101
0.7903998 -7.266951 0.863593 31
0.06288624 -7.263395 1.761716 21
1.1479465 -7.248634 1.7132123 33
1.0433072 -3.4707463 0.53173184 5
1.3372273 -2.386871 1.0390016 6
0.42775583 -7.262328 1.6306982 46
0.055246234 -7.2418103 1.5888107 21
0.7809616 -7.237454 1.6715885 23
0.47280478 -6.9236774 3.420113 20
0.7757128 -7.275385 2.921278 65
0.41646612 -7.257907 1.4597708 54
1.1352966 -7.2311897 1.544267 37
0.19246423 -12.354866 3.0246644 9
0.045007467 -7.268727 1.4164975 26
1.1283052 -7.289516 2.1405735 75
0.41328132 -7.2507772 1.2890401 48
1.1293266 -7.2583275 1.3753841 43
0.4114039 -7.2567472 1.9731834 64
0.7629639 -7.331795 2.0610535 106
0.045918584 -7.2447987 1.2443128 102
0.7717594 -7.2453485 1.3327532 36
0.04386902 -7.2505856 1.9342489 24
1.1281064 -7.2320046 1.8814003 62
0.4052179 -7.274453 1.0308602 48
0.7675224 -7.2634993 1.162329 40
0.40585303 -7.2653522 1.8021952 46
0.76675797 -7.261574 1.8422983 48
0.40368938 -7.2698555 0.55592227 26
0.7643776 -7.271989 0.8628991 30
0.035273314 -7.269698 1.7621577 25
1.1226468 -7.2509947 1.7133174 36
1.0358727 -3.442112 0.5390574 3
1.3287082 -2.389838 1.0382667 7
0.40202308 -7.2621303 1.6307651 28
0.03279245 -7.224642 1.5886292 39
0.75363123 -7.2544 1.6720899 30
0.4482894 -6.923502 3.4211664 18
0.7501394 -7.276359 2.9220324 63
0.3920586 -7.249778 1.4597698 55
1.1105913 -7.225527 1.5442113 31
0.14868426 -12.3577585 3.0256188 9
0.019049048 -7.2671533 1.4164525 28
0.7514784 -7.2364573 1.5021876 28
0.38624692 -7.258411 1.2887099 45
1.1048026 -7.248653 1.3754807 42
0.38899398 -7.2368045 1.9721037 75
0.7364791 -7.336732 2.0616825 106
0.01724875 -7.254934 1.2438085 102
0.74682087 -7.242407 1.3327274 36
0.019778967 -7.241205 1.9339882 32
1.1032186 -7.230311 1.8813705 61
0.3795123 -7.2741666 1.0305936 42
0.7425185 -7.2605433 1.1623032 39
0.3815174 -7.257196 1.802 101
0.7417689 -7.258618 1.8422724 49
0.7393405 -7.2690196 0.8628734 29
0.011117458 -7.260282 1.76199 25
1.0960131 -7.273211 1.7140498 51
1.0332351 -3.3868258 0.5537111 3
1.321191 -2.3849657 1.0389891 6
0.3763634 -7.261842 1.6308241 33
0.008327007 -7.2233043 1.588669 36
0.73136806 -7.239641 1.6717528 23
0.42181373 -6.942452 3.4275432 11
0.72590625 -7.277401 2.922779 59
0.36702263 -7.2536125 1.459723 54
1.0861214 -7.235829 1.5442837 34
0.35842443 -7.2995076 2.6094642 108
0.108064055 -12.35288 3.0255737 7
-0.0046947002 -7.261864 1.4164348 30
0.72686887 -7.24154 1.5021834 30
0.35671222 -7.2962313 2.255536 112
0.6965233 -12.582769 2.6194077 20
0.36320496 -7.250399 1.2887938 48
1.080825 -7.2509556 1.375392 45
0.365355 -7.232746 1.9720821 57
0.7125076 -7.333827 2.0616565 106
-0.007324934 -7.2535405 1.2436621 68
0.7218717 -7.24746 1.3325659 29
-0.0059229136 -7.2437024 1.9344857 27
1.0794976 -7.2286167 1.8813502 61
0.35564065 -7.270068 1.0305809 43
0.71917665 -7.253682 1.1624621 25
0.35363984 -7.2767353 1.8030291 109
0.7174696 -7.25969 1.8424526 46
0.34739006 -7.3045416 0.550389 6
0.7149969 -7.27007 0.8625189 26
-0.014440775 -7.262766 1.7622821 22
1.0739052 -7.2475686 1.7132672 40
1.0294836 -3.343071 0.565227 3
1.313536 -2.3840182 1.0389843 6
0.35185766 -7.2616754 1.630892 39
-0.019637465 -7.225215 1.5887765 39
0.7050976 -7.2363987 1.6717368 24
0.39996886 -6.9190936 3.4222012 15
0.70048374 -7.2663536 2.9212184 64
0.34070075 -7.249034 1.4597113 54
1.0598607 -7.2338877 1.5442635 32
0.06454289 -12.335507 3.024068 7
-0.03280747 -7.2637253 1.4163562 26
0.70108604 -7.234312 1.5021567 34
0.6506735 -12.579367 2.6193717 21
0.33620226 -7.2497444 1.2886766 41
1.0538999 -7.2569695 1.3752534 47
0.33635724 -7.243887 1.9731367 35
0.6853997 -7.334473 2.0619533 106
-0.035412908 -7.255387 1.2433974 54
0.6950695 -7.2481494 1.3324676 38
-0.035729527 -7.2533336 1.9354522 56
1.0527475 -7.2306237 1.8815699 66
0.32765472 -7.273303 1.0300988 45
0.6918667 -7.2583227 1.1620938 27
0.3307196 -7.25243 1.8021479 103
0.6916459 -7.252434 1.8422384 42
0.68762344 -7.274674 0.86182535 18
-0.043429136 -7.2684836 1.7627245 22
1.0473142 -7.2495694 1.7133725 39
1.2068211 -2.2688875 0.8605837 1
1.3045814 -2.3868425 1.0382496 6
0.32413507 -7.264919 1.63104 40
-0.050822377 -7.246798 1.5891688 59
0.679609 -7.237189 1.6718231 25
0.3761189 -6.914861 3.4221883 18
0.6744146 -7.2709517 2.9227452 69
0.31427205 -7.25246 1.4596729 54
1.0345707 -7.2359366 1.544276 26
-0.09953916 -9.567763 2.9619124 10
0.019245028 -12.349752 3.0265005 7
-0.06056583 -7.2696667 1.41624 28
0.674579 -7.2430224 1.5021714 31
-0.39837623 -11.222972 2.673512 8
0.6064152 -12.583915 2.6200519 22
0.30906045 -7.257086 1.2883465 45
1.0285251 -7.2589965 1.3751727 19
0.31065333 -7.243353 1.9733899 39
0.6600816 -7.3312287 2.061936 105
-0.06045997 -7.249622 1.2433884 43
0.6679926 -7.260801 1.3321207 60
-0.059865236 -7.2436805 1.9351997 58
1.0274694 -7.232644 1.8817685 63
0.30183506 -7.272735 1.0298405 36
0.666058 -7.2590523 1.1619223 25
0.30545425 -7.2479362 1.8021557 105
0.66608906 -7.2531714 1.8424186 48
-0.06852472 -7.2626925 1.7627163 24
1.021956 -7.2515707 1.7134788 41
1.1943741 -2.2940834 0.8532489 0
1.2960083 -2.389685 1.037515 6
0.2983389 -7.2643456 1.631108 46
-0.07096422 -7.22569 1.5889308 45
0.65378875 -7.249945 1.6722217 18
0.35072064 -6.9259343 3.4264412 23
0.6500696 -7.2717285 2.9235008 68
0.28834045 -7.2599525 1.4596227 27
1.0101802 -7.2419853 1.5443234 20
-0.13311052 -9.573742 2.963703 12
-0.020915508 -12.340503 3.0259788 7
-0.08440685 -7.2641087 1.4162313 29
0.6513473 -7.2359385 1.5021442 34
-0.39610672 -11.001012 2.6506166 9
0.5642936 -12.588487 2.620734 24
0.28310597 -7.264554 1.2880172 30
0.28690338 -7.2390285 1.9733773 28
0.6360392 -7.328063 2.061919 105
-0.086965084 -7.2557435 1.2429934 48
0.64575446 -7.245766 1.3323513 60
-0.08815837 -7.2575655 1.9364082 30
1.0030863 -7.238658 1.882188 63
0.27510357 -7.284087 1.0288476 19
0.64119184 -7.263826 1.1615549 31
0.27880907 -7.259318 1.8028376 105
0.64049745 -7.261896 1.8430129 35
0.2715062 -7.290977 0.55037117 46
0.6391525 -7.264317 0.8621311 56
-0.09417188 -7.264891 1.7630094 23
0.9978288 -7.253588 1.7135863 41
1.187717 -2.2889159 0.85429335 0
1.288859 -2.3847532 1.0382406 5
0.2737844 -7.263911 1.631177 42
-0.09867799 -7.2314787 1.589096 45
0.62874407 -7.246587 1.6722064 22
0.32682908 -6.9215264 3.4264307 18
0.6244371 -7.272252 2.9242575 72
0.26471877 -7.24745 1.4596367 31
0.98550147 -7.2358856 1.5442702 18
-0.16769242 -9.575399 2.9648929 10
-0.06371677 -12.334762 3.025952 6
-0.11134219 -7.2659545 1.4161531 26
0.6252737 -7.2404985 1.5021503 35
-0.39790308 -10.798397 2.6298037 11
0.5199326 -12.592723 2.621418 21
0.25873876 -7.2559686 1.2881117 45
0.97963744 -7.254917 1.3751329 51
0.26044214 -7.2422376 1.9738994 42
0.6096507 -7.3325467 2.0625296 105
-0.11387718 -7.2575755 1.242729 48
0.62126005 -7.2384167 1.3324186 60
-0.11230016 -7.2477326 1.936158 24
0.9784268 -7.2325406 1.8819488 57
0.24846995 -7.2872534 1.0283463 44
0.6150111 -7.2683406 1.161189 28
0.25300193 -7.258579 1.8030002 104
0.6154128 -7.258492 1.8429978 31
0.2448492 -7.294081 0.54936033 39
0.6122123 -7.2727447 0.86112165 49
-0.121329784 -7.2666893 1.7633228 21
0.97277844 -7.2514305 1.7135663 44
1.1714662 -2.3329828 0.84172153 0
1.2802669 -2.3875358 1.0375061 5
0.24722898 -7.267086 1.6313261 42
-0.124581814 -7.2293797 1.5891459 41
0.3015288 -6.9246106 3.428552 15
0.59771645 -7.280457 2.926558 63
0.23745978 -7.254522 1.4595875 32
0.9597953 -7.241652 1.5443182 18
-0.20156848 -9.57305 2.9654799 11
-0.105401754 -12.321007 3.0249393 7
-0.13737106 -7.2638106 1.41611 23
0.6002656 -7.2370386 1.5021346 28
-0.40052617 -10.607632 2.6102388 11
0.4766016 -12.5849 2.6210237 23
0.23367643 -7.251228 1.2881001 51
0.95421696 -7.2566786 1.3750539 53
0.23469162 -7.241427 1.9741542 43
0.5837759 -7.332984 2.0628264 102
-0.13988054 -7.2554197 1.2425928 43
0.594596 -7.2468233 1.3321556 58
-0.13732398 -7.241698 1.9361508 33
0.9530888 -7.2342935 1.882149 23
0.22627914 -7.2667866 1.0293151 43
0.5899018 -7.2648435 1.1611733 27
0.22793603 -7.2538195 1.8029888 104
0.59034586 -7.254999 1.8429822 38
0.21890283 -7.2931867 0.54884887 39
0.58597565 -7.2771297 0.86042994 45
-0.14642191 -7.2606225 1.7633156 24
0.9464212 -7.2611203 1.7139481 26
1.2716503 -2.3902853 1.036772 5
0.22138178 -7.266235 1.6313953 39
-0.15048838 -7.2271886 1.5891963 20
0.57926774 -7.2356462 1.6720715 55
0.2776513 -6.9200306 3.4285412 15
0.5725887 -7.2769065 2.9265428 60
0.21316433 -7.2457805 1.4595888 33
0.934785 -7.2393603 1.5442988 19
-0.23544443 -9.570577 2.966067 11
-0.15092778 -12.334621 3.0273752 6
-0.16435039 -7.2654595 1.4160316 21
0.57414234 -7.241411 1.5021405 27
-0.401837 -10.41698 2.5906749 10
0.43257785 -12.58486 2.6213481 23
0.20711708 -7.2542515 1.2878778 57
0.92915237 -7.254367 1.3750345 50
0.20817637 -7.244442 1.9746763 30
0.5573245 -7.337276 2.0634367 102
-0.16873705 -7.2648206 1.2420707 39
0.570135 -7.239297 1.3322228 57
